ply
format ascii 1.0
element vertex 1254
property float x
property float y
property float z
property uchar red
property uchar green
property uchar blue
end_header
-15.9746 -59.9121 36.5953  255 255 255
48.4916 79.8922 -86.5723  255 255 255
-75.6712 54.229 -13.7118  255 255 255
1.22027 69.3732 -59.8612  255 255 255
1.27164 69.4687 -60.0872  255 255 255
57.7464 81.3963 -91.9645  255 255 255
-0.0486293 69.0007 -59.1963  255 255 255
-65.5554 55.7253 -19.6242  255 255 255
33.1902 75.8689 -79.5346  255 255 255
-3.36288 67.9247 -57.6244  255 255 255
-153.004 91.4427 -106.453  255 255 255
-10.1129 65.8803 -54.8365  255 255 255
51.9034 49.3459 -12.0578  255 255 255
50.8709 78.4851 -90.0042  255 255 255
-53.1157 57.4091 -29.6474  255 255 255
67.5686 81.6741 -99.045  255 255 255
12.3457 69.7045 -68.2069  255 255 255
63.4576 80.4021 -97.2523  255 255 255
52.0879 48.8142 -12.9669  255 255 255
-15.9456 63.8049 -51.9953  255 255 255
-15.9589 63.7368 -52.0307  255 255 255
-17.1246 63.2975 -51.0118  255 255 255
59.3391 78.9855 -95.5178  255 255 255
67.4337 80.5274 -99.7572  255 255 255
-55.9364 55.8733 -27.9782  255 255 255
53.2885 47.3775 -11.405  255 255 255
58.3078 77.7438 -95.8671  255 255 255
27.0219 71.1742 -78.3272  255 255 255
57.1525 77.4157 -95.4542  255 255 255
54.3338 46.2421 -8.99182  255 255 255
55.7847 76.8438 -94.7223  255 255 255
-65.8332 52.1465 -20.2385  255 255 255
-1.75235 64.9711 -61.338  255 255 255
54.7907 45.5069 -8.12775  255 255 255
21.9887 69.7726 -75.6102  255 255 255
48.7471 49.6425 -20.0639  255 255 255
49.231 37.2668 14.0959  255 255 255
27.5276 70.2171 -79.5067  255 255 255
55.6954 75.7557 -95.5021  255 255 255
-88.5754 51.0409 -17.6921  255 255 255
49.4222 36.501 14.1805  255 255 255
-4.43225 63.0101 -61.0302  255 255 255
50.9598 35.4401 15.4762  255 255 255
-52.7763 53.7334 -32.3141  255 255 255
-36.4365 55.9267 -41.1344  255 255 255
-36.4025 56.4463 -42.4671  255 255 255
-26.1485 58.2025 -48.5477  255 255 255
-27.3532 57.8535 -48.2758  255 255 255
63.7634 75.3013 -103.924  255 255 255
-66.3522 50.3867 -24.2031  255 255 255
53.3623 32.131 20.3301  255 255 255
52.5117 43.9801 -14.6958  255 255 255
12.8263 63.8946 -74.0125  255 255 255
-14.741 58.379 -57.4135  255 255 255
-116.332 62.9743 -59.9557  255 255 255
-15.5833 57.7384 -57.6355  255 255 255
-15.6024 57.7402 -57.6026  255 255 255
-24.5433 55.734 -52.2641  255 255 255
-15.0106 57.4459 -58.038  255 255 255
-55.6887 50.3985 -33.3562  255 255 255
54.3527 41.3197 -11.8182  255 255 255
62.4024 74.4059 -114.714  255 255 255
-5.79429 58.4502 -64.5929  255 255 255
53.5122 30.8212 19.2869  255 255 255
-20.9934 55.4662 -55.4854  255 255 255
-2.58433 58.7252 -66.9152  255 255 255
56.0086 28.7484 24.2639  255 255 255
-5.40553 57.7178 -65.6537  255 255 255
55.1776 39.9249 -10.9138  255 255 255
-19.5147 55.0128 -56.8949  255 255 255
-19.5114 55.0243 -56.89  255 255 255
51.0729 31.5423 14.1369  255 255 255
56.319 28.312 24.2125  255 255 255
53.6223 29.9901 18.8217  255 255 255
20.1246 61.4946 -80.9148  255 255 255
32.7244 63.6374 -88.4534  255 255 255
57.0319 27.6233 25.2662  255 255 255
-10.9377 55.7519 -63.1642  255 255 255
-17.9728 54.4521 -59.0887  255 255 255
49.6978 66.4954 -99.2042  255 255 255
56.6578 27.8529 24.2629  255 255 255
57.4674 26.6388 27.9419  255 255 255
57.2979 26.9084 26.1759  255 255 255
57.6629 26.3084 28.2519  255 255 255
57.6629 26.3084 28.2519  255 255 255
55.7423 28.187 21.8454  255 255 255
57.9011 26.2167 26.7079  255 255 255
53.1155 39.5306 -17.1606  255 255 255
58.0712 25.9623 27.195  255 255 255
-65.796 45.2485 -29.7906  255 255 255
58.7955 24.9529 29.6689  255 255 255
42.3944 63.1803 -96.9611  255 255 255
56.193 26.9796 22.2836  255 255 255
59.0298 24.4604 30.3182  255 255 255
56.6017 26.6192 23.2299  255 255 255
58.9389 24.9551 28.3655  255 255 255
49.9303 30.2704 10.7013  255 255 255
59.208 24.4667 29.4671  255 255 255
-79.1222 42.4234 -21.7266  255 255 255
57.1717 25.7317 23.4976  255 255 255
49.9382 39.7977 -24.557  255 255 255
59.1251 24.3628 27.7153  255 255 255
49.1252 39.8692 -25.0994  255 255 255
49.1945 39.9007 -25.1946  255 255 255
49.1122 39.8594 -25.0855  255 255 255
-115.574 55.5292 -65.3686  255 255 255
60.4642 22.9814 31.1596  255 255 255
-11.3301 51.6822 -67.258  255 255 255
-52.1291 45.0559 -40.3064  255 255 255
60.4487 22.834 30.724  255 255 255
60.6954 22.6586 31.5197  255 255 255
-53.4199 44.1003 -38.7065  255 255 255
51.1493 37.7337 -22.5442  255 255 255
60.2433 22.766 29.564  255 255 255
61.3133 21.7646 32.0047  255 255 255
47.7762 39.0554 -29.4624  255 255 255
-11.883 49.9763 -66.6276  255 255 255
53.0166 26.2511 15.483  255 255 255
-63.1846 42.0737 -34.5745  255 255 255
49.3871 37.5744 -26.1926  255 255 255
49.3729 37.5641 -26.1581  255 255 255
-27.6036 47.0084 -57.3946  255 255 255
-32.4318 46.4417 -55.2479  255 255 255
49.9446 37.105 -25.9761  255 255 255
49.9366 27.6172 8.34988  255 255 255
49.6935 27.502 8.74925  255 255 255
-41.3332 44.563 -49.2871  255 255 255
47.02 38.3077 -31.208  255 255 255
51.6501 35.7636 -22.1426  255 255 255
49.868 27.0673 8.89089  255 255 255
-43.1998 44.0495 -48.5333  255 255 255
50.0463 27.1788 7.50789  255 255 255
18.8789 53.1022 -88.4933  255 255 255
50.3389 26.3825 9.41335  255 255 255
53.9831 24.506 16.2649  255 255 255
52.2534 25.1937 12.8209  255 255 255
3.09659 49.7052 -79.6639  255 255 255
-73.6789 38.2816 -30.8524  255 255 255
-74.4607 37.866 -30.012  255 255 255
53.0302 23.9948 13.4889  255 255 255
-55.99 40.4457 -43.9043  255 255 255
61.6516 19.3497 30.2458  255 255 255
-78.3483 35.6334 -25.1792  255 255 255
51.0177 32.6861 -25.1373  255 255 255
-10.071 44.9425 -73.3221  255 255 255
-48.0125 39.4287 -48.3419  255 255 255
51.4545 32.1006 -24.6094  255 255 255
57.6982 20.4723 22.0106  255 255 255
58.6396 19.9702 23.7151  255 255 255
-81.9167 34.825 -26.483  255 255 255
-81.9237 34.8382 -26.5074  255 255 255
52.7815 22.4754 12.0794  255 255 255
-7.99625 44.3792 -75.5779  255 255 255
57.4152 47.4013 -89.381  255 255 255
-22.6511 39.8608 -57.6677  255 255 255
-11.4756 43.4297 -73.7665  255 255 255
52.4858 30.5484 -22.9408  255 255 255
-79.1789 34.4606 -28.686  255 255 255
-79.1822 34.4398 -28.5633  255 255 255
-129.45 48.9609 -80.4078  255 255 255
-8.39123 43.7425 -76.4357  255 255 255
-41.3863 38.9931 -54.0278  255 255 255
53.0122 29.9466 -22.2173  255 255 255
52.4003 22.0007 10.7743  255 255 255
47.6795 32.7495 -34.1698  255 255 255
49.4354 23.1757 5.27771  255 255 255
49.393 23.1588 5.33018  255 255 255
51.6694 30.3297 -26.4944  255 255 255
-10.3431 42.5861 -75.341  255 255 255
53.5183 29.1961 -21.4828  255 255 255
-8.37476 42.4623 -76.8548  255 255 255
-12.9537 41.7473 -74.25  255 255 255
53.4546 20.7305 12.7751  255 255 255
55.4918 19.6751 16.4622  255 255 255
58.5082 18.1787 22.2225  255 255 255
58.4979 18.1537 22.2193  255 255 255
-12.5174 41.0942 -74.9036  255 255 255
-42.5735 36.7106 -54.6835  255 255 255
-41.2166 36.8516 -55.7448  255 255 255
-41.1523 36.7277 -55.2958  255 255 255
-125.392 43.8595 -74.9303  255 255 255
-64.925 33.6337 -40.418  255 255 255
-36.3101 37.0581 -60.5336  255 255 255
-36.33 37.0489 -60.5133  255 255 255
-58.9593 33.9542 -44.4615  255 255 255
-42.5152 35.5784 -55.9046  255 255 255
-69.5461 31.2609 -36.3279  255 255 255
48.3548 21.0433 1.15137  255 255 255
-65.7737 32.3281 -41.2933  255 255 255
-30.6928 35.5971 -65.5116  255 255 255
-53.9848 32.8517 -49.8894  255 255 255
60.0123 15.2911 23.9659  255 255 255
-82.6486 29.5899 -30.3464  255 255 255
-83.5773 29.4355 -30.5607  255 255 255
50.1885 19.2314 4.51897  255 255 255
50.1861 19.2306 4.52336  255 255 255
49.8562 19.3155 4.01635  255 255 255
60.6212 14.6483 24.9945  255 255 255
-69.8871 30.5636 -40.3218  255 255 255
-2.12473 35.413 -73.0043  255 255 255
50.5535 18.8943 4.20358  255 255 255
-64.4263 30.8659 -44.0739  255 255 255
53.2467 17.542 10.1016  255 255 255
53.3031 17.5669 10.0336  255 255 255
-41.8237 33.0687 -59.2941  255 255 255
49.3503 19.0712 2.30154  255 255 255
51.5681 35.1618 -75.5928  255 255 255
-78.8258 28.9861 -34.6952  255 255 255
60.3342 14.3129 23.4988  255 255 255
48.234 26.4861 -36.2396  255 255 255
-73.0818 29.8051 -42.6286  255 255 255
51.0793 17.5684 5.38319  255 255 255
-39.804 31.6508 -61.0458  255 255 255
48.7006 24.6059 -34.9506  255 255 255
53.018 23.1219 -27.8597  255 255 255
53.0713 23.1601 -28.0149  255 255 255
58.8229 13.3725 20.7277  255 255 255
-12.1919 30.5616 -66.1669  255 255 255
-85.6834 25.9832 -32.0125  255 255 255
-0.817916 30.1069 -66.4476  255 255 255
58.2242 13.2849 18.2493  255 255 255
-73.896 27.4063 -45.7898  255 255 255
51.2375 15.5963 4.86347  255 255 255
48.3825 22.9847 -36.9398  255 255 255
-3.08604 27.6393 -63.424  255 255 255
-64.8835 26.099 -47.3328  255 255 255
60.5938 11.2291 23.8219  255 255 255
62.8117 10.4732 27.4407  255 255 255
53.6789 19.9937 -27.1609  255 255 255
-82.646 24.0254 -35.4862  255 255 255
52.7964 20.1644 -28.6937  255 255 255
52.9262 20.2155 -28.8618  255 255 255
63.1022 10.0559 27.8893  255 255 255
-65.5528 25.3409 -48.0715  255 255 255
-83.3665 23.8428 -37.7609  255 255 255
49.9999 14.1999 0.9918  255 255 255
58.4152 11.1997 17.9872  255 255 255
51.5497 19.7523 -31.3863  255 255 255
-65.7553 24.5512 -47.953  255 255 255
-65.4356 24.6281 -49.1839  255 255 255
19.8368 25.0441 -62.5832  255 255 255
59.0578 10.8408 19.111  255 255 255
-81.063 22.4174 -38.7751  255 255 255
54.3711 11.7177 8.40881  255 255 255
53.9591 11.635 7.95881  255 255 255
0.142899 22.5417 -57.1136  255 255 255
51.5575 12.141 4.10677  255 255 255
51.714 12.1975 3.7577  255 255 255
51.7532 12.2218 3.71234  255 255 255
-1.66541 22.3314 -57.6091  255 255 255
50.4476 12.5578 0.0447131  255 255 255
-37.8503 22.1663 -54.4295  255 255 255
48.8844 12.7466 -2.90807  255 255 255
48.8554 12.6977 -2.67089  255 255 255
-70.2729 21.9904 -47.5513  255 255 255
58.5057 9.47537 17.138  255 255 255
-81.1891 20.7515 -38.3133  255 255 255
52.0171 11.1236 3.24834  255 255 255
-79.0243 20.1906 -40.0053  255 255 255
58.4784 8.97863 16.6084  255 255 255
19.4174 20.4498 -57.0988  255 255 255
-40.8472 20.1635 -52.3352  255 255 255
-78.4819 19.286 -39.3152  255 255 255
-79.3024 19.7619 -41.9004  255 255 255
-69.4739 20.6495 -50.8938  255 255 255
-4.06388 19.4313 -54.4565  255 255 255
-16.454 18.9159 -52.7739  255 255 255
-16.4759 18.9145 -52.8523  255 255 255
-35.3982 18.2013 -50.2779  255 255 255
63.6758 5.71199 26.7667  255 255 255
-12.0322 15.4301 -49.0976  255 255 255
-13.1678 15.0776 -48.6172  255 255 255
-5.21792 14.5484 -48.4912  255 255 255
53.2908 7.22122 3.70548  255 255 255
-17.6007 14.4217 -48.0941  255 255 255
53.5029 6.56478 3.71325  255 255 255
-14.5589 13.4148 -46.6919  255 255 255
-14.5351 13.3923 -46.6479  255 255 255
-15.2178 13.2044 -46.3116  255 255 255
50.4676 6.47741 -3.18678  255 255 255
50.4654 6.48163 -3.18637  255 255 255
52.1896 5.64397 0.264428  255 255 255
0.789692 3.19989 21.4288  255 255 255
51.0617 5.59924 -2.2437  255 255 255
64.1847 1.87604 24.9477  255 255 255
52.2639 4.44665 -0.353877  255 255 255
62.4983 1.73366 22.077  255 255 255
-54.7733 9.66444 -39.9864  255 255 255
57.2918 2.56023 10.4676  255 255 255
-18.7024 8.67791 -40.7649  255 255 255
-18.7035 8.69693 -40.955  255 255 255
57.5513 2.03894 11.2394  255 255 255
-24.0284 7.89378 -39.6773  255 255 255
-26.2369 7.7656 -39.1511  255 255 255
5.62708 0.680375 22.8454  255 255 255
42.4423 6.94019 -43.3032  255 255 255
46.8238 3.96023 -13.8535  255 255 255
62.4029 0.584101 20.127  255 255 255
62.3915 0.583979 20.1444  255 255 255
-42.6011 7.20658 -37.6585  255 255 255
65.0656 -0.348676 25.6032  255 255 255
62.6251 0.11664 20.4246  255 255 255
58.4739 0.854861 12.5714  255 255 255
-26.8091 6.60369 -38.3844  255 255 255
-26.7581 6.51887 -37.8069  255 255 255
57.3771 1.0133 8.90853  255 255 255
55.4204 1.19405 4.73288  255 255 255
53.9881 1.33667 1.42028  255 255 255
6.36683 -0.42492 23.0533  255 255 255
-35.2148 5.85864 -38.0706  255 255 255
-27.3457 5.49619 -36.7314  255 255 255
-28.277 5.1208 -35.8786  255 255 255
57.3447 0.0720598 8.1726  255 255 255
58.7851 -0.211288 11.2152  255 255 255
-27.4221 4.71772 -35.8912  255 255 255
-27.4622 4.72304 -35.8267  255 255 255
-40.4126 4.92131 -35.4418  255 255 255
57.2197 -0.135013 7.38817  255 255 255
-48.1254 4.45753 -34.1995  255 255 255
63.3722 -1.6125 20.8375  255 255 255
57.833 -0.645622 8.63293  255 255 255
62.2345 -1.51273 18.2368  255 255 255
55.0869 -0.229061 3.23695  255 255 255
59.3652 -1.10733 12.2005  255 255 255
-39.3158 3.54494 -33.747  255 255 255
-11.4515 -1.89181 26.4645  255 255 255
-11.457 -1.78545 25.8732  255 255 255
57.9893 -1.07305 8.46814  255 255 255
-27.5753 3.24906 -34.0592  255 255 255
-27.577 3.26369 -34.0941  255 255 255
59.4413 -1.4885 11.7074  255 255 255
-10.4785 -2.10835 27.5073  255 255 255
60.2253 -1.64112 13.4203  255 255 255
-71.8198 3.95675 -33.5506  255 255 255
58.6247 -1.53589 10.3543  255 255 255
61.982 -2.0427 15.9107  255 255 255
56.2613 -1.31473 4.93163  255 255 255
58.2456 -1.72885 8.7978  255 255 255
58.2456 -1.72885 8.7978  255 255 255
59.381 -2.01798 11.3456  255 255 255
-39.5046 2.33453 -31.9031  255 255 255
-40.5288 2.27052 -32.0938  255 255 255
-12.8295 -2.81186 26.6822  255 255 255
60.562 -2.70981 12.0102  255 255 255
60.0958 -2.70637 12.7533  255 255 255
58.1922 -2.44544 8.31654  255 255 255
58.187 -2.4541 8.31398  255 255 255
64.8623 -3.56222 22.9595  255 255 255
61.025 -3.0327 14.7686  255 255 255
-71.4908 2.13042 -30.6815  255 255 255
60.1374 -3.04302 12.3221  255 255 255
62.3246 -3.59662 17.7703  255 255 255
62.3246 -3.59662 17.7703  255 255 255
59.9892 -3.22586 11.8701  255 255 255
59.9892 -3.22586 11.8701  255 255 255
-46.9877 0.942976 -30.6634  255 255 255
57.1695 -2.79413 5.69205  255 255 255
-40.5857 0.756685 -30.0229  255 255 255
59.784 -3.40721 11.3269  255 255 255
65.4219 -4.40536 23.8865  255 255 255
57.4758 -3.29711 6.42217  255 255 255
63.5348 -4.26992 19.4045  255 255 255
64.1004 -4.28737 20.3885  255 255 255
63.0128 -4.21853 18.1196  255 255 255
60.8348 -4.01578 13.4672  255 255 255
-14.8395 -4.10068 26.2309  255 255 255
53.5316 -3.03592 -2.56537  255 255 255
62.5187 -4.38574 17.0487  255 255 255
53.395 -3.47281 -2.92419  255 255 255
53.4152 -3.46579 -2.9762  255 255 255
61.4508 -4.56015 14.3092  255 255 255
61.4125 -4.5989 14.3631  255 255 255
62.1637 -4.77203 16.0766  255 255 255
-5.62883 -5.05907 31.3136  255 255 255
11.3443 -5.22327 27.9291  255 255 255
60.7261 -4.76308 12.48  255 255 255
61.0168 -4.86104 13.4094  255 255 255
62.1696 -5.09585 15.4193  255 255 255
58.5195 -4.58139 7.54211  255 255 255
65.6769 -5.73825 23.2277  255 255 255
61.7963 -5.37367 14.8525  255 255 255
-12.6349 -5.7379 29.1088  255 255 255
55.5765 -5.05198 -0.0208238  255 255 255
60.6748 -5.63684 11.7469  255 255 255
64.4561 -6.18276 19.8721  255 255 255
63.7965 -6.25969 20.9856  255 255 255
58.5209 -5.66836 8.09748  255 255 255
62.3424 -6.20346 15.0388  255 255 255
62.3424 -6.20346 15.0388  255 255 255
59.5471 -6.02925 9.32555  255 255 255
-13.0974 -6.27694 29.2536  255 255 255
-17.2107 -6.1975 24.96  255 255 255
60.2702 -6.63625 10.6675  255 255 255
60.2632 -6.63422 10.6776  255 255 255
47.5885 -5.44148 -17.3509  255 255 255
47.7725 -5.4512 -17.6523  255 255 255
-44.3595 -3.93217 -25.0369  255 255 255
61.7073 -7.00435 12.9254  255 255 255
61.7073 -7.00435 12.9254  255 255 255
47.2496 -5.84358 -18.8222  255 255 255
54.1732 -6.53628 -3.91957  255 255 255
61.7001 -7.72356 12.7177  255 255 255
61.6794 -7.72501 12.7376  255 255 255
-15.0836 -7.41924 28.2167  255 255 255
-14.4084 -7.55567 28.7574  255 255 255
-12.7944 -7.71139 30.3127  255 255 255
-66.6224 -5.0954 -22.8875  255 255 255
66.3082 -9.041 22.7166  255 255 255
50.4719 -7.89639 -13.3454  255 255 255
61.4618 -8.76258 12.527  255 255 255
-0.525686 -8.77776 34.5373  255 255 255
-66.2796 -6.18122 -21.53  255 255 255
62.0606 -8.99735 12.4693  255 255 255
63.2758 -9.25033 15.782  255 255 255
46.0899 -8.22027 -23.8043  255 255 255
62.2987 -9.54045 12.9931  255 255 255
63.3376 -9.79554 15.611  255 255 255
63.0343 -9.84757 14.7394  255 255 255
-27.1405 -8.85536 15.2809  255 255 255
-15.74 -9.33156 28.656  255 255 255
59.2574 -9.85918 5.80608  255 255 255
-69.1272 -7.58493 -20.2464  255 255 255
51.12 -9.62734 -13.3635  255 255 255
59.0351 -10.07 5.13362  255 255 255
64.9786 -10.3435 18.5208  255 255 255
47.1705 -9.50648 -22.0498  255 255 255
-67.5868 -7.90139 -18.9338  255 255 255
-19.2224 -9.4946 24.0157  255 255 255
4.70366 -10.0732 34.0367  255 255 255
63.1157 -10.6319 14.156  255 255 255
63.5687 -10.8146 16.1104  255 255 255
65.9713 -11.0384 20.9072  255 255 255
66.0007 -11.0344 20.9072  255 255 255
57.6514 -10.8018 1.05666  255 255 255
61.7703 -10.9024 10.7829  255 255 255
63.1984 -11.0306 14.9581  255 255 255
-83.6882 -8.5911 -17.0534  255 255 255
-84.0371 -8.59553 -17.9875  255 255 255
45.8561 -10.5603 -24.1499  255 255 255
58.5114 -11.1308 3.01364  255 255 255
64.4247 -11.3756 17.3944  255 255 255
-29.3928 -10.2519 16.4305  255 255 255
59.8066 -11.3464 6.25536  255 255 255
52.7874 -11.2442 -10.1301  255 255 255
52.7874 -11.2442 -10.1301  255 255 255
-21.804 -10.6368 21.8349  255 255 255
6.68829 -11.2827 33.7231  255 255 255
64.7187 -11.943 17.1633  255 255 255
47.7691 -11.9013 -22.3636  255 255 255
-111.259 -9.60472 -14.6849  255 255 255
64.3704 -12.3826 16.2592  255 255 255
-1.56395 -11.6273 35.619  255 255 255
-1.56639 -11.6192 35.6224  255 255 255
65.6395 -12.5729 19.2069  255 255 255
65.0639 -12.5249 17.7773  255 255 255
50.8182 -12.5373 -15.5349  255 255 255
64.6318 -12.7656 16.6954  255 255 255
52.4933 -12.8937 -11.4283  255 255 255
57.5689 -13.01 -0.591786  255 255 255
6.27831 -12.5177 34.1947  255 255 255
60.3757 -13.6186 5.7392  255 255 255
-22.4191 -12.5563 23.9952  255 255 255
56.3077 -13.9319 -4.22624  255 255 255
65.5358 -13.951 18.2247  255 255 255
56.0683 -14.3815 -5.40681  255 255 255
57.3546 -14.3384 -1.74782  255 255 255
57.4217 -14.3307 -1.83127  255 255 255
66.5495 -14.53 20.1593  255 255 255
49.8902 -14.9294 -18.4064  255 255 255
49.8902 -14.9294 -18.4064  255 255 255
57.5277 -14.728 -1.76912  255 255 255
-53.3814 -13.3339 -13.7298  255 255 255
58.306 -15.189 -0.457395  255 255 255
58.306 -15.1883 -0.449909  255 255 255
55.6974 -15.322 -6.34582  255 255 255
-7.93549 -13.7802 35.2427  255 255 255
67.0782 -15.0874 20.7622  255 255 255
-11.4912 -13.8777 33.1282  255 255 255
66.849 -15.1775 20.3086  255 255 255
53.3849 -15.7692 -12.0527  255 255 255
60.2633 -15.775 4.65354  255 255 255
66.7435 -15.4504 19.8973  255 255 255
-75.4484 -14.0605 -12.681  255 255 255
66.5286 -15.5754 18.937  255 255 255
-76.1235 -14.2201 -13.0954  255 255 255
-8.10645 -14.2921 34.8205  255 255 255
-20.5146 -14.3758 26.2707  255 255 255
59.5702 -16.1799 2.3548  255 255 255
59.6038 -16.1737 2.37104  255 255 255
66.8437 -15.8984 20.6632  255 255 255
53.7874 -16.3333 -11.5343  255 255 255
50.9685 -16.8478 -17.5967  255 255 255
-41.6986 -15.3927 -12.253  255 255 255
6.71801 -15.1299 34.5204  255 255 255
-13.9494 -15.0186 31.7124  255 255 255
-55.3812 -15.7251 -10.8618  255 255 255
60.5334 -17.2728 3.43536  255 255 255
51.794 -18.0924 -16.3198  255 255 255
-53.49 -16.4046 -10.4382  255 255 255
11.3488 -15.9934 32.1222  255 255 255
-16.4602 -16.0381 29.3488  255 255 255
58.8326 -18.4603 -1.42556  255 255 255
60.3293 -18.3295 2.42917  255 255 255
60.3293 -18.3295 2.42917  255 255 255
59.0635 -18.5778 -0.631555  255 255 255
0.590396 -16.3048 36.2114  255 255 255
-53.5686 -17.3747 -8.66212  255 255 255
-53.6843 -17.3781 -9.13195  255 255 255
57.9619 -18.7461 -3.81312  255 255 255
-21.5687 -16.756 27.1004  255 255 255
-64.4411 -17.7846 -8.17687  255 255 255
-10.1208 -16.903 34.1441  255 255 255
-23.9822 -17.3328 25.2134  255 255 255
-49.0979 -18.9519 -7.61286  255 255 255
-23.5897 -17.7239 25.5205  255 255 255
-63.7302 -18.7877 -7.26848  255 255 255
11.4225 -18.0022 31.1596  255 255 255
60.093 -20.9331 0.214631  255 255 255
61.5413 -20.8743 3.65329  255 255 255
1.56703 -18.2028 35.8753  255 255 255
-60.0507 -20.5129 -5.59913  255 255 255
61.0927 -22.3345 1.09087  255 255 255
67.3416 -21.5383 18.339  255 255 255
-3.27865 -19.3175 35.853  255 255 255
-61.2011 -21.4654 -4.44102  255 255 255
7.17316 -19.7893 34.1638  255 255 255
-2.20435 -19.5758 35.7215  255 255 255
-18.3844 -19.661 31.6678  255 255 255
7.59764 -19.9814 33.8649  255 255 255
60.5324 -23.5116 -0.913998  255 255 255
60.5347 -23.5058 -0.926933  255 255 255
-6.50587 -20.4958 34.9738  255 255 255
21.9328 -21.7128 25.7766  255 255 255
-8.82395 -20.6948 34.17  255 255 255
-8.8285 -20.6924 34.2196  255 255 255
-14.5166 -20.8616 32.981  255 255 255
-14.5166 -20.8616 32.981  255 255 255
60.4721 -24.8576 -1.43527  255 255 255
45.2544 -25.4835 -7.28683  255 255 255
-14.3702 -21.2172 33.4478  255 255 255
62.8672 -25.0898 3.24121  255 255 255
62.3847 -25.3478 2.97399  255 255 255
62.4002 -25.3459 2.9409  255 255 255
60.5421 -25.7333 -0.717459  255 255 255
47.5844 -26.2696 -6.25003  255 255 255
-19.3505 -22.0654 30.391  255 255 255
44.5983 -26.4217 -6.56498  255 255 255
11.6266 -22.8688 32.9177  255 255 255
58.4336 -27.3841 -6.25542  255 255 255
-18.5199 -22.811 31.0964  255 255 255
62.3053 -27.1307 2.06473  255 255 255
-46.0035 -25.8888 -0.0736549  255 255 255
-6.84256 -23.164 34.701  255 255 255
45.2199 -28.1763 -4.19909  255 255 255
45.2165 -28.1617 -4.2284  255 255 255
-20.6643 -23.8487 32.0644  255 255 255
45.6884 -28.8511 -3.67208  255 255 255
45.6884 -28.8511 -3.67208  255 255 255
64.2999 -28.4028 4.56244  255 255 255
64.6008 -28.4115 4.30021  255 255 255
-6.68357 -24.319 36.3228  255 255 255
-22.0755 -25.058 31.9101  255 255 255
9.17622 -25.2279 34.3053  255 255 255
67.3036 -29.1424 11.7915  255 255 255
-12.9999 -25.5911 34.1018  255 255 255
-12.9999 -25.5911 34.1018  255 255 255
-18.8433 -25.8681 34.2015  255 255 255
-23.5493 -26.6463 29.1743  255 255 255
68.1783 -30.6949 12.2215  255 255 255
69.3135 -30.4472 16.0233  255 255 255
16.2062 -27.3088 32.8271  255 255 255
17.3063 -27.3607 33.0401  255 255 255
-11.5956 -26.7313 34.9492  255 255 255
-13.572 -26.9236 35.2997  255 255 255
-9.96052 -27.1094 35.0767  255 255 255
54.9878 -33.4205 1.12915  255 255 255
10.0328 -28.0818 34.4291  255 255 255
67.8263 -32.7195 10.5649  255 255 255
67.3038 -32.6125 11.4653  255 255 255
-13.6595 -27.6117 35.7147  255 255 255
69.7516 -32.841 14.5375  255 255 255
69.1494 -32.6358 16.3728  255 255 255
-9.15762 -28.4697 36.5074  255 255 255
-19.0406 -29.5433 31.5099  255 255 255
12.4542 -29.4033 35.4731  255 255 255
4.19646 -29.273 36.2117  255 255 255
-15.5129 -29.2295 37.7968  255 255 255
-5.47083 -29.7663 37.6474  255 255 255
-5.4851 -29.7565 37.6838  255 255 255
53.2922 -36.7498 5.13089  255 255 255
-58.6281 -34.5494 9.56808  255 255 255
-44.8077 -34.7417 9.14666  255 255 255
8.14457 -30.6457 37.4593  255 255 255
-43.8112 -35.0333 9.89396  255 255 255
-9.46993 -31.2198 37.1841  255 255 255
6.7434 -31.3734 38.428  255 255 255
6.74701 -31.3856 38.4021  255 255 255
-58.4097 -35.6038 11.0396  255 255 255
-43.3579 -35.7058 10.5932  255 255 255
-45.0896 -35.9881 10.5887  255 255 255
-1.04767 -31.5579 38.6789  255 255 255
43.2475 -38.1758 7.44425  255 255 255
-10.954 -32.5359 35.2882  255 255 255
-19.7132 -34.2581 27.6973  255 255 255
0.414473 -33.567 36.8308  255 255 255
15.1245 -35.9789 27.8595  255 255 255
-40.6501 -38.1909 13.694  255 255 255
-19.776 -35.791 26.8498  255 255 255
49.017 -40.6595 9.41128  255 255 255
11.3523 -36.7645 29.7773  255 255 255
3.77485 -36.1809 34.3667  255 255 255
-35.8833 -39.7417 16.6738  255 255 255
60.7515 -42.8312 12.503  255 255 255
1.03373 -39.0431 32.5646  255 255 255
1.45634 -39.3129 32.1663  255 255 255
1.43252 -39.2952 32.3047  255 255 255
0.865096 -39.7646 31.9091  255 255 255
0.848321 -39.716 32.1005  255 255 255
-15.6289 -40.5054 28.4318  255 255 255
4.79054 -40.4634 30.2916  255 255 255
4.94533 -41.6209 29.3877  255 255 255
-7.25464 -41.668 29.4658  255 255 255
53.5089 -49.1166 20.1982  255 255 255
-13.585 -44.4463 30.9929  255 255 255
31.7802 -48.9835 20.2622  255 255 255
30.0979 -49.3634 20.9149  255 255 255
29.9918 -49.2603 21.2093  255 255 255
30.5729 -49.4313 20.8023  255 255 255
43.7452 -50.2034 21.4501  255 255 255
-35.0167 -48.3934 24.6409  255 255 255
-14.0387 -47.8892 27.9875  255 255 255
42.4617 -51.1332 21.9209  255 255 255
26.9083 -50.6162 22.4018  255 255 255
58.0978 -51.4379 22.8858  255 255 255
-24.7366 -49.0943 26.5911  255 255 255
36.668 -51.6027 22.8314  255 255 255
28.6696 -51.6801 23.7348  255 255 255
43.7564 -52.208 23.9384  255 255 255
-5.2069 -49.8425 29.4836  255 255 255
60.8614 -53.2723 25.6865  255 255 255
25.8449 -52.7156 26.2099  255 255 255
53.5571 -53.6185 26.1153  255 255 255
35.2487 -56.3151 28.4944  255 255 255
25.4355 -56.1527 29.1539  255 255 255
-27.1275 -54.7012 31.2977  255 255 255
20.7622 -56.6906 30.1437  255 255 255
-2.53894 -56.5719 31.6455  255 255 255
-38.0054 -56.3809 33.1558  255 255 255
-12.1628 -57.092 33.4045  255 255 255
48.4581 -59.0506 32.5226  255 255 255
-11.1325 -57.452 33.2643  255 255 255
-18.1294 -57.4363 33.9944  255 255 255
-10.6427 -57.938 33.8832  255 255 255
-76.7541 -57.8029 35.9193  255 255 255
29.2319 -59.48 33.2899  255 255 255
-13.6818 -58.2014 34.3977  255 255 255
35.2064 -59.9312 34.253  255 255 255
-13.8452 -58.6632 34.994  255 255 255
-4.85159 -59.7245 36.1101  255 255 255
19.3254 -60.5099 35.4772  255 255 255
-35.6759 -59.3917 36.9378  255 255 255
-8.42945 -59.8482 35.9006  255 255 255
-8.40649 -59.7921 36.022  255 255 255
53.1689 49.8314 -9.59288  255 255 255
-51.2022 58.5293 -28.8826  255 255 255
-41.6644 60.0943 -34.4099  255 255 255
49.9702 79.2499 -88.615  255 255 255
-65.7308 55.4148 -20.4655  255 255 255
-65.7169 55.2903 -20.2442  255 255 255
1.07011 68.462 -60.6574  255 255 255
53.951 48.4677 -8.79777  255 255 255
40.4747 76.5054 -85.0514  255 255 255
-79.0457 51.8739 -11.4809  255 255 255
-79.3196 52.2668 -12.6634  255 255 255
-60.7592 55.3278 -24.1321  255 255 255
-33.7043 60.1413 -40.8795  255 255 255
-10.3313 64.9186 -55.7065  255 255 255
24.0453 72.031 -76.3434  255 255 255
24.0453 72.031 -76.3434  255 255 255
-69.5892 53.275 -19.1333  255 255 255
56.6742 78.1894 -94.1931  255 255 255
-54.8019 55.5437 -28.3759  255 255 255
61.9411 78.9297 -97.4177  255 255 255
52.5405 47.4868 -12.4098  255 255 255
-64.755 52.7653 -21.9397  255 255 255
-76.9734 50.5244 -14.8686  255 255 255
29.205 71.1253 -80.4397  255 255 255
49.1278 48.9975 -19.0247  255 255 255
20.3697 69.2707 -74.845  255 255 255
55.227 44.8279 -7.20243  255 255 255
-51.1308 54.9481 -32.2784  255 255 255
-51.1565 54.9543 -32.3529  255 255 255
20.2371 68.1156 -75.9234  255 255 255
-65.9378 51.8234 -23.3773  255 255 255
-27.1616 58.7576 -47.6285  255 255 255
-27.1413 58.7576 -47.6531  255 255 255
50.9882 35.2682 17.1754  255 255 255
49.2912 36.2744 13.5895  255 255 255
26.9694 68.3839 -78.087  255 255 255
51.4517 34.6035 17.763  255 255 255
24.6947 68.1361 -79.4932  255 255 255
-52.9169 52.8296 -32.9647  255 255 255
-52.9048 52.6833 -32.4981  255 255 255
-65.1297 50.45 -25.3397  255 255 255
-51.04 52.6433 -34.3687  255 255 255
-51.0157 52.6344 -34.4009  255 255 255
-66.0601 49.9417 -24.5883  255 255 255
-39.9009 54.4691 -41.8074  255 255 255
-9.32701 59.1277 -60.5014  255 255 255
54.7849 30.2763 24.716  255 255 255
-53.1846 51.125 -33.9784  255 255 255
66.3233 73.2813 -105.471  255 255 255
-12.6653 58.0331 -59.2542  255 255 255
51.5889 43.4223 -17.099  255 255 255
52.5226 32.0517 17.5519  255 255 255
53.8244 30.9134 20.7118  255 255 255
3.74167 60.8287 -69.6921  255 255 255
66.9404 72.2385 -107.09  255 255 255
-115.016 60.5851 -58.6542  255 255 255
-7.41579 57.8373 -63.6022  255 255 255
54.9158 30.06 21.2338  255 255 255
-117.908 61.5573 -63.5318  255 255 255
50.5998 32.195 13.2107  255 255 255
-10.1947 56.5178 -62.5688  255 255 255
-10.2437 56.2877 -61.6262  255 255 255
-20.8405 54.505 -57.0215  255 255 255
5.04192 58.3205 -70.4584  255 255 255
57.3734 26.6527 28.88  255 255 255
-51.8544 49.1526 -37.6548  255 255 255
-16.819 54.8584 -59.4609  255 255 255
-16.7777 54.864 -59.4817  255 255 255
18.2482 61.1876 -81.0875  255 255 255
48.8112 42.9112 -23.7285  255 255 255
48.9077 43.0472 -24.0208  255 255 255
52.3639 30.3636 16.6307  255 255 255
50.606 41.8778 -21.2676  255 255 255
50.606 41.8778 -21.2676  255 255 255
-26.3363 52.5923 -53.5206  255 255 255
-20.2746 53.5827 -57.9491  255 255 255
57.1494 27.1245 25.4692  255 255 255
-78.5559 43.8857 -20.3085  255 255 255
25.9355 61.3705 -86.4282  255 255 255
-57.4998 47.0226 -34.2689  255 255 255
-57.4998 47.0226 -34.2689  255 255 255
19.417 60.1714 -82.5696  255 255 255
-11.2063 54.6043 -63.7765  255 255 255
-25.811 51.8393 -54.857  255 255 255
-64.7182 45.3683 -29.7422  255 255 255
-37.779 49.6497 -47.294  255 255 255
-27.0914 51.2962 -54.1761  255 255 255
-27.0862 51.3145 -54.2018  255 255 255
-27.0765 51.3508 -54.437  255 255 255
-76.1757 42.9066 -21.0878  255 255 255
-25.1272 51.02 -56.2614  255 255 255
-10.6147 53.3206 -65.143  255 255 255
-42.784 47.8496 -44.7278  255 255 255
-76.1738 42.7285 -23.4496  255 255 255
57.4226 25.8347 24.6441  255 255 255
48.5026 40.7802 -26.0221  255 255 255
-19.6883 49.371 -55.0302  255 255 255
-10.6822 52.1173 -66.4454  255 255 255
57.7875 25.0096 25.0584  255 255 255
59.8522 23.6015 29.3314  255 255 255
60.4294 22.7033 32.3534  255 255 255
-122.743 58.975 -77.2056  255 255 255
48.8949 39.2365 -26.2574  255 255 255
48.9297 39.2852 -26.3253  255 255 255
50.5453 38.3417 -23.1146  255 255 255
-12.6963 50.8986 -65.868  255 255 255
-10.8544 51.1352 -66.8182  255 255 255
-53.8626 43.9131 -40.4247  255 255 255
-40.1148 45.8846 -49.1335  255 255 255
-40.6721 45.1642 -49.5037  255 255 255
-43.3698 44.6119 -47.5287  255 255 255
-53.8354 42.1909 -41.4209  255 255 255
-65.4629 40.3227 -34.1556  255 255 255
-43.4874 43.3001 -48.6638  255 255 255
-68.2382 39.4943 -31.7601  255 255 255
-46.2207 42.6978 -47.2193  255 255 255
-28.9245 45.368 -58.4937  255 255 255
-63.2329 40.0495 -36.1088  255 255 255
-63.2329 40.0495 -36.1088  255 255 255
-44.9274 42.3971 -47.2373  255 255 255
-44.8443 42.6896 -47.6485  255 255 255
-58.8579 40.5762 -39.2253  255 255 255
52.0816 24.7585 12.2701  255 255 255
-51.4234 40.5191 -43.3092  255 255 255
-45.8993 40.789 -48.9529  255 255 255
49.1931 25.3056 5.84967  255 255 255
48.7814 25.2876 5.33297  255 255 255
-27.3882 42.7219 -61.9135  255 255 255
-54.0279 38.674 -44.6841  255 255 255
-53.9469 38.6173 -44.6016  255 255 255
-54.4299 38.0287 -45.1642  255 255 255
-54.4347 38.0009 -45.0838  255 255 255
-10.0805 43.8906 -74.4277  255 255 255
-10.0156 43.9641 -74.7195  255 255 255
-80.5233 34.4347 -27.2592  255 255 255
-55.6979 37.543 -44.4224  255 255 255
51.8365 30.6988 -24.5591  255 255 255
-74.315 34.7546 -32.249  255 255 255
-74.2702 34.7459 -32.1679  255 255 255
52.7672 29.1301 -22.6063  255 255 255
-43.2392 37.3015 -54.4159  255 255 255
53.5017 28.4698 -22.1258  255 255 255
52.9575 20.2256 11.4423  255 255 255
54.0618 27.6084 -21.12  255 255 255
53.1278 27.9599 -23.2429  255 255 255
-71.4709 32.458 -34.5813  255 255 255
49.2448 29.3662 -31.895  255 255 255
60.9645 16.1764 26.7387  255 255 255
-124.098 43.4958 -76.0499  255 255 255
53.6944 26.9318 -22.6405  255 255 255
53.7003 26.9419 -22.6741  255 255 255
52.6946 19.4412 10.3959  255 255 255
-83.0932 30.3098 -29.1092  255 255 255
-83.1771 30.3305 -29.3143  255 255 255
-66.8996 32.121 -40.7391  255 255 255
-60.9543 32.7027 -44.5817  255 255 255
58.3722 16.5636 21.1987  255 255 255
-82.3201 30.2617 -30.5638  255 255 255
60.4991 15.287 24.9651  255 255 255
60.4634 15.2715 25.0305  255 255 255
61.8376 14.556 27.8152  255 255 255
43.5811 35.0505 -74.785  255 255 255
-60.0534 30.5367 -46.8451  255 255 255
-38.2962 32.289 -62.9121  255 255 255
-82.4425 27.4293 -32.1063  255 255 255
-77.6905 28.0026 -36.4942  255 255 255
-74.5288 28.5654 -43.2681  255 255 255
-73.2152 28.4795 -43.0627  255 255 255
-114.537 33.9612 -65.4755  255 255 255
50.3254 16.3152 3.18063  255 255 255
50.3303 16.3181 3.16649  255 255 255
53.3569 14.9642 9.72671  255 255 255
58.7479 12.8817 19.9955  255 255 255
50.4561 15.7051 3.02561  255 255 255
59.324 12.5959 20.0449  255 255 255
-8.67693 28.4869 -64.0786  255 255 255
62.5866 11.0402 26.9935  255 255 255
62.802 10.9241 27.4635  255 255 255
-0.91643 26.8985 -62.8337  255 255 255
55.104 13.1422 11.8762  255 255 255
-3.49167 26.7684 -62.7785  255 255 255
49.8795 14.8387 0.951764  255 255 255
-85.2525 23.327 -35.0827  255 255 255
-1.21816 25.1875 -60.9824  255 255 255
-48.1438 25.7922 -58.802  255 255 255
48.9634 14.2672 -1.30661  255 255 255
-1.75462 24.1008 -58.7986  255 255 255
-0.538121 24.3927 -59.8003  255 255 255
-0.572266 24.3805 -59.6917  255 255 255
58.5874 10.6882 18.1545  255 255 255
-41.8538 24.8331 -58.2652  255 255 255
-13.761 23.6725 -58.1799  255 255 255
-13.8086 23.7247 -58.3247  255 255 255
0.287981 23.6331 -59.3209  255 255 255
-16.8868 23.6403 -57.7815  255 255 255
-109.118 25.5013 -54.7434  255 255 255
-81.633 21.6413 -38.8226  255 255 255
30.5311 21.7676 -58.7884  255 255 255
-38.6718 21.7638 -53.7106  255 255 255
-84.4841 19.779 -37.6602  255 255 255
-107.38 22.8113 -52.168  255 255 255
63.2084 7.31101 25.9073  255 255 255
-83.5975 19.3442 -37.4544  255 255 255
53.1663 10.325 4.72521  255 255 255
63.8714 6.62511 27.373  255 255 255
-14.0382 19.3067 -53.0859  255 255 255
19.9819 18.98 -55.1905  255 255 255
-85.3156 18.2851 -38.9673  255 255 255
62.8716 6.08322 24.9922  255 255 255
63.3949 5.906 26.0703  255 255 255
-22.689 17.907 -52.5969  255 255 255
63.0742 5.93751 25.5161  255 255 255
63.1411 5.9421 25.4183  255 255 255
63.0026 5.50092 25.1245  255 255 255
63.6373 5.3945 25.8986  255 255 255
63.4052 5.18122 25.0268  255 255 255
63.4052 5.18122 25.0268  255 255 255
-58.6355 16.0517 -46.1991  255 255 255
47.548 8.44548 -6.89887  255 255 255
51.6704 7.72487 -0.476399  255 255 255
57.538 5.97946 12.3769  255 255 255
62.6286 4.42086 23.6001  255 255 255
63.1301 4.12668 24.4026  255 255 255
-14.6412 12.511 -45.5465  255 255 255
51.1576 6.18632 -2.02215  255 255 255
51.4373 5.70031 -1.57998  255 255 255
58.0916 3.60641 11.9947  255 255 255
51.4384 4.67745 -2.10048  255 255 255
-19.822 9.64115 -41.8398  255 255 255
58.3184 2.96287 12.2358  255 255 255
58.3238 2.95936 12.2456  255 255 255
-4.14721 1.87351 22.3347  255 255 255
62.8923 1.15014 21.8041  255 255 255
62.882 1.14608 21.8223  255 255 255
-54.5509 8.79195 -38.4147  255 255 255
56.4671 2.51604 7.53065  255 255 255
56.4379 2.48295 7.56043  255 255 255
-43.8885 7.63538 -38.113  255 255 255
58.0361 1.3572 12.1799  255 255 255
-26.2044 7.07612 -38.473  255 255 255
-84.1292 7.90722 -34.7777  255 255 255
-47.2033 6.93231 -36.7741  255 255 255
51.6794 2.72178 -3.99262  255 255 255
-44.3662 6.60571 -39.3483  255 255 255
-40.3046 5.61637 -34.9248  255 255 255
-46.4727 5.48578 -35.6726  255 255 255
63.5359 -0.954926 21.4666  255 255 255
53.7243 0.424437 0.156647  255 255 255
-118.175 6.14651 -30.9439  255 255 255
-14.3249 -1.35799 23.3023  255 255 255
56.3129 -0.593361 4.59993  255 255 255
-32.0347 3.29008 -34.2936  255 255 255
57.5012 -1.02949 7.63442  255 255 255
57.5222 -1.02729 7.59772  255 255 255
-69.543 3.97302 -32.4898  255 255 255
-50.4395 3.30343 -32.2845  255 255 255
57.8401 -1.40087 7.98384  255 255 255
58.9954 -1.77772 10.6876  255 255 255
59.0089 -1.77497 10.6604  255 255 255
61.0039 -2.5157 16.362  255 255 255
58.4498 -2.35801 9.01565  255 255 255
60.1047 -2.47848 12.7229  255 255 255
59.7868 -2.67888 11.8205  255 255 255
-18.2934 -2.03032 12.4497  255 255 255
57.6506 -3.15537 7.02071  255 255 255
57.6506 -3.15537 7.02071  255 255 255
-19.3017 -2.8624 12.8641  255 255 255
63.735 -4.39174 19.8894  255 255 255
63.7364 -4.38268 19.8801  255 255 255
63.7364 -4.38268 19.8801  255 255 255
58.4245 -3.90069 8.67715  255 255 255
57.9496 -3.94984 6.93095  255 255 255
60.8258 -4.40975 12.8783  255 255 255
60.823 -4.4099 12.887  255 255 255
-7.72354 -4.99431 31.2711  255 255 255
54.3014 -3.89833 -2.64079  255 255 255
-19.2562 -3.8957 13.3899  255 255 255
51.2431 -3.70639 -8.42326  255 255 255
51.4648 -3.69928 -8.98543  255 255 255
60.4753 -4.94289 11.7671  255 255 255
61.6783 -5.14679 14.4432  255 255 255
62.8196 -5.31482 17.1939  255 255 255
10.7995 -5.88634 28.7145  255 255 255
62.1358 -5.91748 14.4096  255 255 255
58.5174 -5.66361 6.40003  255 255 255
-46.1441 -2.79417 -26.4006  255 255 255
60.4756 -5.94604 11.2178  255 255 255
60.4843 -5.94517 11.2023  255 255 255
-46.0518 -3.4662 -25.9405  255 255 255
49.3727 -5.43969 -14.0302  255 255 255
60.0677 -6.65483 9.90018  255 255 255
61.9121 -6.88959 13.5574  255 255 255
49.9449 -6.0481 -13.4447  255 255 255
-43.1596 -4.35971 -24.6538  255 255 255
-4.54366 -7.38817 33.798  255 255 255
57.043 -7.06923 2.70744  255 255 255
60.5019 -7.32857 10.7017  255 255 255
48.8476 -6.44299 -16.7402  255 255 255
57.3878 -7.56222 3.18508  255 255 255
57.3999 -7.56861 3.17711  255 255 255
-8.56139 -8.42139 33.1681  255 255 255
-46.3237 -7.02251 -21.4217  255 255 255
56.9077 -9.07715 1.22531  255 255 255
57.0191 -9.04231 0.983868  255 255 255
-68.8867 -6.85346 -20.4188  255 255 255
58.9434 -9.3487 5.05365  255 255 255
-1.91448 -9.44147 35.0564  255 255 255
58.3506 -9.84719 3.45377  255 255 255
0.342846 -9.81834 35.1995  255 255 255
64.1372 -10.2429 16.9011  255 255 255
-64.5471 -7.80066 -19.2677  255 255 255
57.564 -10.0408 1.63125  255 255 255
59.4302 -10.5561 5.462  255 255 255
64.2712 -11.4944 16.7468  255 255 255
57.2062 -11.368 -0.406126  255 255 255
64.9074 -11.7368 18.7406  255 255 255
60.4499 -11.7637 7.788  255 255 255
56.8188 -11.8677 -1.54412  255 255 255
48.0851 -12.045 -21.228  255 255 255
61.248 -12.5034 8.6648  255 255 255
61.248 -12.5034 8.6648  255 255 255
-103.375 -10.0846 -13.7229  255 255 255
-47.2749 -11.0119 -16.6943  255 255 255
-16.7397 -11.6849 28.2368  255 255 255
5.58213 -12.1111 34.4418  255 255 255
59.2593 -13.1369 3.49764  255 255 255
64.8908 -13.1318 17.1276  255 255 255
61.4577 -13.3124 8.71164  255 255 255
42.1522 -13.3849 -18.9481  255 255 255
50.8172 -13.819 -15.4031  255 255 255
53.9126 -13.8691 -9.40657  255 255 255
59.0309 -13.8402 2.49745  255 255 255
59.0309 -13.8402 2.49745  255 255 255
11.0683 -12.9236 32.1009  255 255 255
61.5863 -13.9637 8.25927  255 255 255
-52.2929 -12.6574 -14.809  255 255 255
60.0964 -14.1221 4.60186  255 255 255
-58.3056 -12.643 -14.1638  255 255 255
-60.034 -12.9543 -13.7134  255 255 255
-19.0805 -13.1177 25.6784  255 255 255
-50.2216 -13.2915 -13.8196  255 255 255
12.6527 -13.6508 30.4925  255 255 255
59.6083 -14.6742 3.35969  255 255 255
59.6083 -14.6742 3.35969  255 255 255
65.8729 -14.488 18.5346  255 255 255
65.9138 -14.4906 18.4706  255 255 255
56.478 -14.7579 -4.28851  255 255 255
56.4975 -14.7579 -4.30361  255 255 255
61.7486 -14.6362 7.98796  255 255 255
61.7459 -14.6285 7.985  255 255 255
61.7643 -14.6267 7.94978  255 255 255
-59.3366 -13.3702 -13.2881  255 255 255
47.122 -15.0065 -18.7288  255 255 255
-60.3068 -13.6336 -13.4715  255 255 255
57.0148 -15.1479 -3.10014  255 255 255
56.8769 -15.1558 -2.8403  255 255 255
-64.6188 -13.6576 -13.2224  255 255 255
66.1069 -15.0863 18.2933  255 255 255
-57.3902 -14.1022 -12.8909  255 255 255
52.2286 -16.0724 -13.931  255 255 255
-49.9068 -15.1837 -12.0238  255 255 255
56.047 -16.5483 -5.6675  255 255 255
67.3136 -16.1731 20.4701  255 255 255
-50.3525 -15.5816 -11.9885  255 255 255
54.5583 -17.401 -9.77099  255 255 255
54.3191 -17.3796 -9.27966  255 255 255
60.7736 -17.1279 4.25569  255 255 255
62.1155 -17.0912 7.28727  255 255 255
55.9528 -17.3935 -7.07259  255 255 255
-67.5201 -15.9105 -10.4525  255 255 255
59.5129 -17.5903 0.445901  255 255 255
60.9127 -18.3175 3.63087  255 255 255
60.9047 -18.311 3.62882  255 255 255
60.9268 -18.3034 3.60873  255 255 255
58.411 -18.5296 -2.12225  255 255 255
3.46366 -16.3661 35.3128  255 255 255
17.8243 -17.2168 26.0065  255 255 255
11.1706 -17.1933 31.4831  255 255 255
-52.6988 -18.2848 -8.13502  255 255 255
-52.7185 -18.2921 -8.19325  255 255 255
-15.3369 -17.0374 30.5923  255 255 255
-59.5903 -18.3096 -7.65036  255 255 255
-26.7772 -17.4199 25.6497  255 255 255
-16.8907 -17.5576 29.5965  255 255 255
4.90874 -17.6385 35.2351  255 255 255
-58.4497 -18.8967 -6.98204  255 255 255
-52.3193 -18.8888 -7.33748  255 255 255
61.3893 -20.3191 3.6728  255 255 255
61.4651 -20.3131 3.51786  255 255 255
-60.242 -19.153 -7.00947  255 255 255
11.772 -18.9556 31.0142  255 255 255
-48.8144 -20.6413 -5.84295  255 255 255
64.117 -21.4652 10.395  255 255 255
-48.1363 -20.7014 -5.69013  255 255 255
-26.3677 -19.0676 27.0372  255 255 255
-26.3408 -19.0561 27.1992  255 255 255
-1.95998 -18.9334 36.1157  255 255 255
-1.95049 -18.9468 36.025  255 255 255
60.6386 -22.2219 -1.3028  255 255 255
59.1956 -22.6679 -3.13207  255 255 255
66.1696 -22.0622 13.8203  255 255 255
-62.6932 -22.5182 -3.32714  255 255 255
60.4126 -24.6645 -1.71923  255 255 255
-54.6401 -24.6706 -0.98697  255 255 255
12.6428 -22.7555 32.7129  255 255 255
44.7334 -27.139 -4.99605  255 255 255
64.6861 -26.6843 6.34221  255 255 255
-14.0779 -23.2195 33.9598  255 255 255
-56.9394 -26.3892 -0.0884698  255 255 255
60.765 -28.8502 -3.65833  255 255 255
-54.3039 -26.6296 0.810256  255 255 255
66.0435 -28.9559 8.94788  255 255 255
66.0157 -28.9526 9.00494  255 255 255
-1.40801 -24.8057 36.2164  255 255 255
4.36413 -25.1953 35.6245  255 255 255
0.228489 -25.1161 36.4876  255 255 255
-28.1536 -27.219 17.8404  255 255 255
-7.2031 -25.3577 36.2747  255 255 255
10.8888 -26.0127 33.0766  255 255 255
68.0256 -29.6375 12.1277  255 255 255
1.40579 -25.8309 36.3585  255 255 255
65.2897 -30.5704 8.84393  255 255 255
69.602 -29.6996 16.7241  255 255 255
62.9752 -32.417 -0.840465  255 255 255
-13.2236 -26.4966 34.6882  255 255 255
-55.4024 -30.4128 5.84557  255 255 255
-13.067 -27.314 35.514  255 255 255
68.5218 -32.1316 12.2701  255 255 255
8.85521 -28.1783 34.6748  255 255 255
-57.7273 -31.7488 7.24197  255 255 255
-15.5622 -28.298 36.6229  255 255 255
-23.6729 -30.006 26.2922  255 255 255
-12.8527 -28.873 37.1827  255 255 255
11.9221 -29.5835 35.5897  255 255 255
-15.611 -28.8649 37.5414  255 255 255
-15.6092 -28.8702 37.5389  255 255 255
69.45 -34.3695 12.8621  255 255 255
-56.2215 -33.4345 8.74076  255 255 255
10.5405 -29.8747 36.1728  255 255 255
66.2471 -36.1835 4.49815  255 255 255
69.9519 -35.7768 12.9216  255 255 255
-11.2977 -31.0655 36.4707  255 255 255
0.991277 -31.2122 38.4827  255 255 255
5.87985 -31.5294 38.1503  255 255 255
-0.116663 -32.242 37.9218  255 255 255
10.1783 -35.944 31.4376  255 255 255
-13.3456 -36.2327 30.8986  255 255 255
-8.1311 -37.4258 32.3656  255 255 255
12.7283 -39.5531 26.585  255 255 255
15.2956 -40.6638 25.6679  255 255 255
17.5677 -42.2805 25.4513  255 255 255
55.471 -47.0941 18.1174  255 255 255
21.0926 -46.5927 21.6456  255 255 255
21.0883 -46.5814 21.6348  255 255 255
-7.43441 -46.0881 32.3723  255 255 255
28.6629 -50.757 22.8468  255 255 255
27.0709 -51.4367 23.3358  255 255 255
55.0833 -52.588 24.7162  255 255 255
-35.2166 -50.4538 26.8401  255 255 255
51.3071 -54.4885 27.4927  255 255 255
-32.7604 -52.9567 29.7559  255 255 255
49.8283 -55.99 28.7973  255 255 255
-22.6156 -55.0412 31.5009  255 255 255
-22.6185 -55.0283 31.4922  255 255 255
-28.0805 -55.2846 32.0371  255 255 255
22.0357 -57.0266 30.4356  255 255 255
-19.608 -56.7832 33.2186  255 255 255
-16.8106 -57.1314 33.5292  255 255 255
-37.8315 -57.3506 34.1507  255 255 255
-0.450676 -58.0997 33.1867  255 255 255
-11.5187 -57.715 34.1792  255 255 255
-18.8013 -57.8469 34.4659  255 255 255
0.632814 -58.7579 33.6867  255 255 255
-8.72921 -58.4444 34.3802  255 255 255
-6.37088 -58.5596 34.315  255 255 255
-13.4189 -58.5875 34.4866  255 255 255
-3.39371 -58.9933 34.6865  255 255 255
51.2936 -60.5382 34.7338  255 255 255
29.2042 -60.6489 35.4709  255 255 255
52.2647 50.2988 -11.2141  255 255 255
-71.0902 54.748 -16.7711  255 255 255
29.8337 74.9954 -77.4841  255 255 255
65.619 82.4843 -97.2741  255 255 255
66.9381 82.5736 -97.3289  255 255 255
17.5412 71.1337 -70.3969  255 255 255
28.6545 73.7457 -77.655  255 255 255
-123.418 74.139 -66.9  255 255 255
-55.1798 56.2787 -27.1406  255 255 255
54.9535 47.05 -7.42135  255 255 255
54.9397 47.0438 -7.39602  255 255 255
-79.8154 51.6623 -11.6096  255 255 255
-31.3962 60.6801 -41.9996  255 255 255
-31.3962 60.6801 -41.9996  255 255 255
50.8867 77.4612 -90.1178  255 255 255
-32.9953 60.3869 -42.2679  255 255 255
-32.9866 60.2745 -42.1023  255 255 255
-8.77589 63.3964 -57.4608  255 255 255
22.3388 69.6032 -75.9025  255 255 255
22.3204 69.5721 -75.8125  255 255 255
-62.3526 53.1838 -25.2122  255 255 255
24.6164 69.5179 -78.0857  255 255 255
23.6148 68.9219 -77.8024  255 255 255
23.6148 68.9219 -77.8024  255 255 255
-10.8297 61.8871 -57.7456  255 255 255
28.8317 68.129 -76.8074  255 255 255
27.0138 68.5172 -78.4159  255 255 255
55.093 43.9545 -8.54374  255 255 255
54.3207 44.3039 -10.0877  255 255 255
7.49436 64.852 -69.0198  255 255 255
12.4626 66.2961 -73.1474  255 255 255
-81.2349 48.7473 -14.9663  255 255 255
-81.128 48.5881 -14.5143  255 255 255
-82.3274 47.848 -12.9825  255 255 255
64.7328 75.5798 -103.054  255 255 255
55.3273 43.4245 -9.59758  255 255 255
51.101 34.1773 15.433  255 255 255
51.101 34.1773 15.433  255 255 255
-26.4915 56.3393 -49.9457  255 255 255
50.5809 45.059 -18.6822  255 255 255
24.3272 65.1454 -81.7275  255 255 255
49.6743 34.0055 12.3236  255 255 255
50.3964 33.0092 13.9326  255 255 255
-10.1853 57.6868 -61.3512  255 255 255
-10.1815 57.7036 -61.3594  255 255 255
-83.0202 44.8991 -15.5324  255 255 255
-80.1039 45.1398 -17.9924  255 255 255
-11.0646 56.8838 -62.3498  255 255 255
-124.17 64.843 -74.1059  255 255 255
-63.7584 46.3893 -29.7187  255 255 255
-104.605 53.0022 -46.518  255 255 255
-77.5448 43.6789 -20.323  255 255 255
-84.1758 42.7746 -17.049  255 255 255
57.1836 26.7076 24.8613  255 255 255
50.2525 30.6395 11.7655  255 255 255
54.93 27.8655 20.1949  255 255 255
-11.4567 53.5179 -64.8154  255 255 255
50.2667 39.9942 -22.7982  255 255 255
50.2667 39.9942 -22.7982  255 255 255
56.6625 64.227 -105.283  255 255 255
-45.2182 47.1131 -43.7483  255 255 255
57.3924 25.2092 23.9764  255 255 255
-33.1622 48.2888 -52.5388  255 255 255
49.8371 39.1324 -24.1684  255 255 255
-47.0461 45.6447 -44.1297  255 255 255
-42.5623 46.0365 -46.8785  255 255 255
-37.2843 46.8264 -50.7875  255 255 255
-66.3712 42.0164 -31.9253  255 255 255
-77.4305 40.3775 -24.7807  255 255 255
-84.3934 39.1286 -20.3281  255 255 255
-44.8735 44.1299 -47.0098  255 255 255
50.1145 26.4312 8.43403  255 255 255
-53.0481 41.4671 -42.9415  255 255 255
53.1911 24.4025 14.4758  255 255 255
-60.9924 39.8909 -38.3958  255 255 255
-42.2895 41.9171 -50.6373  255 255 255
-9.74922 46.734 -72.0444  255 255 255
0.460364 47.4555 -78.1402  255 255 255
-55.3908 38.7625 -43.635  255 255 255
-129.655 50.211 -81.9106  255 255 255
53.9233 21.3798 14.0497  255 255 255
-121.434 48.3388 -79.9429  255 255 255
-31.6616 40.0028 -60.478  255 255 255
46.4538 33.1596 -35.6605  255 255 255
54.0379 29.3435 -20.9901  255 255 255
-11.5725 40.7367 -75.7848  255 255 255
-54.1732 33.8828 -48.4793  255 255 255
-54.2216 33.9206 -48.6642  255 255 255
18.2341 38.6972 -78.0759  255 255 255
18.2353 38.5213 -77.5568  255 255 255
-123.982 41.7552 -73.326  255 255 255
-115.373 41.2552 -72.4678  255 255 255
52.0868 26.944 -25.8553  255 255 255
-57.415 32.9949 -47.7168  255 255 255
59.2301 15.6124 22.4389  255 255 255
-38.9865 34.0895 -60.8275  255 255 255
-57.3619 31.7111 -47.4548  255 255 255
55.4735 16.5642 15.273  255 255 255
51.9771 24.7264 -26.5189  255 255 255
52.0113 24.7384 -26.6131  255 255 255
51.5002 17.9234 6.60171  255 255 255
52.686 17.2897 9.07657  255 255 255
-31.1071 33.5711 -66.6967  255 255 255
18.4943 33.6348 -72.2027  255 255 255
-4.47579 33.2572 -70.3192  255 255 255
51.5872 16.7365 6.0181  255 255 255
-37.438 31.5811 -64.6239  255 255 255
-81.6527 26.7209 -33.2588  255 255 255
-81.6527 26.7209 -33.2588  255 255 255
-84.465 26.0094 -32.8767  255 255 255
-69.6616 26.9698 -42.6609  255 255 255
52.6948 21.6676 -27.1117  255 255 255
